ncols         73
nrows         73
xllcorner     704015.00418247
yllcorner     3970659.6941116
cellsize      6.096012192024
NODATA_value  -9999
-9999 -9999 -9999 -9999 -9999 -9999 -9999 -9999 -9999 -9999 -9999 -9999 -9999 -9999 -9999 -9999 -9999 -9999 -9999 -9999 -9999 -9999 -9999 -9999 -9999 -9999 -9999 -9999 -9999 -9999 -9999 -9999 -9999 -9999 -9999 -9999 -9999 -9999 -9999 -9999 -9999 -9999 -9999 -9999 -9999 -9999 -9999 122.9859 123.7613 124.3925 124.8854 125.2512 125.5977 125.687 125.894 125.9668 125.7388 125.2399 124.8299 124.2743 123.8213 123.059 122.1504 120.8306 119.239 117.5108 115.553 113.0107 110.2715 107.6377 107.3341 -9999 -9999 
109.1903 110.4111 111.2435 112.2941 112.8961 113.0674 112.954 112.473 111.8366 110.8091 109.6786 108.7624 108.2034 108.1391 108.1275 108.2579 108.2406 108.14 108.4076 108.7542 109.2543 109.9914 110.4159 110.4595 110.6384 110.7311 110.9326 111.1435 111.5089 111.9338 112.2987 112.8071 113.0759 113.417 113.8227 114.2579 114.9261 115.5738 116.1751 117.1499 117.7674 118.2155 118.7949 119.6395 120.5377 121.4494 122.2708 123.4925 124.1755 124.6845 125.0878 125.406 125.6309 125.6818 125.8452 125.7358 125.5428 125.264 124.7641 124.249 123.8622 123.4154 122.4162 121.0925 119.4667 117.5199 115.4037 112.8988 110.3519 107.4252 105.9768 -9999 -9999 
108.3872 109.8176 111.0231 112.0143 112.5916 112.9903 112.7547 112.2673 111.3751 110.2824 109.365 108.542 108.0105 107.8245 107.5426 107.8706 108.0388 108.2857 108.3207 108.7395 109.5424 110.2285 110.9073 110.4111 110.3915 110.3769 110.5555 110.6104 110.8591 110.9951 111.7342 112.3819 112.6989 113.2128 113.9263 114.603 115.3125 116.2169 116.9417 117.5415 118.1582 118.7513 119.3414 120.1195 121.0653 121.9471 122.7518 123.9253 124.5398 124.8071 125.0357 125.2807 125.5828 125.8056 125.7206 125.5511 125.2807 125.0213 124.6784 124.2346 123.6982 123.2611 122.4842 121.1976 119.4246 117.6613 115.5518 112.9317 110.0566 107.8702 105.8622 -9999 -9999 
107.8974 109.3321 110.7216 111.6482 112.2825 112.9296 112.5815 112.0238 111.3596 110.0691 109.2108 108.3869 107.6913 107.0403 106.826 107.4134 107.3152 107.7264 108.2217 108.8724 109.49 110.0401 110.2712 110.1654 110.023 110.1626 109.9971 110.348 109.9472 110.2867 111.3517 111.9168 112.4962 113.3826 114.2485 114.8986 115.678 116.4857 117.3809 118.2398 118.8391 119.3831 120.0564 120.7999 121.6033 122.6052 123.1407 124.2618 124.6477 125.0149 125.0524 125.2213 125.5173 125.6303 125.6821 125.2335 125.1052 124.9601 124.5516 124.1173 123.7558 123.3291 122.401 121.3049 119.6002 117.8686 115.8996 113.6843 110.6326 108.4198 105.9381 -9999 -9999 
107.6834 109.1894 110.3708 111.3553 111.9418 112.2734 112.2572 111.9549 111.1478 110.0255 109.2315 108.4375 107.7026 107.0323 106.4261 106.7922 106.8062 107.1192 107.8257 108.51 109.2111 109.6174 109.5073 109.3055 109.2138 109.287 109.2095 109.6417 109.7457 110.3577 110.9554 111.598 112.6632 113.7386 114.806 115.8405 116.4939 117.309 118.1606 118.8616 119.3429 119.9705 120.7801 121.4616 122.33 122.956 123.4964 124.4971 124.8217 125.1923 125.3015 125.4782 125.5221 125.6486 125.4929 125.2755 125.0972 124.8796 124.4306 123.9945 123.6369 123.0898 122.1766 121.2415 119.7702 118.0487 116.1337 113.581 111.3328 108.9934 106.6879 -9999 -9999 
107.3801 108.7785 109.8758 110.9615 111.5736 111.8433 111.8442 111.6607 111.1353 110.0727 109.1958 108.4933 107.8032 107.1335 106.2027 105.7927 106.1814 106.8671 107.2134 107.8934 108.5957 109.1714 108.9913 108.735 108.7408 108.8599 108.7651 109.0215 109.8892 110.2989 110.8149 111.6818 112.9787 114.183 115.3116 116.3379 117.458 118.2292 118.9601 119.502 120.0885 120.7785 121.3604 122.0514 122.7613 123.316 123.725 124.6007 124.9485 125.2274 125.2716 125.4624 125.3786 125.5682 125.492 125.4347 125.1161 124.8379 124.4026 123.9679 123.647 123.0755 122.0706 121.0739 119.9928 118.2654 116.405 114.4469 112.1865 109.8155 107.325 -9999 -9999 
107.1835 108.3302 109.5082 110.4272 111.0228 111.3014 111.5379 111.3181 110.9646 109.9901 109.1361 108.2753 107.7523 107.3347 106.588 105.3285 106.0094 106.4447 106.7794 107.3286 107.7831 108.4713 108.411 108.0376 107.3981 107.4731 108.5673 109.0498 109.7243 110.3096 110.9838 112.1198 113.4268 114.8435 115.8795 116.7411 117.8723 118.6952 119.4411 119.9815 120.6648 121.1894 121.7173 122.4857 123.1078 123.6144 123.953 124.7552 125.0021 125.2515 125.3972 125.5718 125.5956 125.5913 125.5425 125.3807 125.1369 124.7735 124.3749 123.8902 123.4339 123.1749 122.1407 121.2193 120.19 118.6586 116.9042 115.0812 112.6257 110.2742 108.0598 -9999 -9999 
107.054 108.1525 109.1605 109.8966 110.6092 110.8551 110.8798 110.9426 110.6159 109.9206 109.0081 108.2272 107.6831 107.271 106.7541 105.5785 105.3246 105.7964 105.8869 106.4663 107.2165 107.6654 107.648 107.2997 107.0793 107.7081 108.4576 109.0172 109.853 110.5333 111.3251 112.6084 113.9452 115.3156 116.2129 117.1182 118.0314 118.8955 119.6233 120.2025 120.8675 121.3601 121.9102 122.6092 123.3526 123.8418 124.3282 124.8214 125.1884 125.3798 125.5349 125.666 125.7032 125.6395 125.3859 125.1811 125.0448 124.7659 124.3581 123.8277 123.5251 122.9953 122.0014 121.1022 120.0949 118.8318 117.4016 115.5372 113.0567 110.8914 108.7408 -9999 -9999 
106.6303 107.7124 108.5847 109.368 109.9886 110.3038 110.4412 110.2696 110.0907 109.5274 108.6981 108.0726 107.4505 106.9674 106.4438 105.4526 104.5062 105.0853 105.1743 105.7452 106.4669 106.7315 106.3484 105.5946 106.9272 107.7343 108.6533 109.5966 110.3458 111.2675 112.2499 113.0963 114.2902 115.6231 116.5433 117.3916 118.1667 118.9226 119.7413 120.3728 121.0934 121.753 122.2589 122.7954 123.3684 123.885 124.3764 124.608 124.8406 125.2067 125.4947 125.7376 125.52 125.6212 125.3917 125.0207 124.8927 124.6342 124.2496 123.8604 123.384 122.7652 121.9566 121.2007 120.1427 118.7766 117.3008 115.6707 113.6483 111.5663 109.2678 -9999 -9999 
106.4721 107.3884 108.0693 108.8615 109.3939 109.6984 109.7908 109.6549 109.3991 109.0635 108.4027 107.5667 107.0723 106.7385 106.0981 105.1548 103.1702 103.7512 104.3111 104.9033 105.6153 105.6885 104.9518 105.9954 106.8604 107.8669 108.9709 110.0788 110.9003 111.5641 112.7544 113.7983 114.8069 115.8926 116.8978 117.615 118.4419 119.2563 119.7867 120.4237 121.1431 121.6554 122.0654 122.8783 123.3794 123.7698 124.2487 124.4983 124.7705 125.0095 125.2664 125.353 125.2192 125.231 125.1997 124.9162 124.5681 124.3861 124.0435 123.5955 123.0197 122.4772 121.9557 121.219 120.158 118.8586 117.2239 115.5317 113.7285 111.6034 109.4013 -9999 -9999 
105.9841 106.968 107.6294 108.2394 108.7764 108.9703 108.8523 108.7679 108.6435 108.1373 107.5837 107.0293 106.591 106.1734 105.711 104.7241 103.2098 102.9633 103.3842 103.5625 104.7019 104.633 105.067 105.7098 106.7385 108.0342 109.461 110.5702 111.7394 112.4663 113.3883 114.2765 115.3668 116.3909 117.0365 117.8339 118.6336 119.3527 119.8647 120.4429 121.1175 121.6749 122.208 122.8859 123.5202 123.6824 124.1554 124.2968 124.5812 124.6912 124.7047 124.7738 124.8708 124.8632 124.7653 124.4962 124.2831 123.9975 123.6507 123.2587 122.8859 122.3891 121.6996 121.1162 120.4993 118.7717 117.0587 115.486 113.7261 111.5571 109.3619 -9999 -9999 
105.5239 106.4148 107.1652 107.6849 108.079 108.1217 108.0056 107.9946 107.7761 107.3085 106.8159 106.2569 105.8516 105.4535 105.0902 104.1047 102.9197 101.5783 102.2278 102.7889 103.2882 104.5793 105.5839 106.3917 107.0284 108.6249 110.009 111.2806 112.5602 113.2972 114.0415 114.8767 115.7899 116.5814 117.38 118.0634 118.708 119.4164 120.033 120.5048 121.179 121.6469 122.2754 122.9274 123.3992 123.7131 124.0027 123.814 124.0588 124.0499 124.0774 124.2231 124.2682 124.1517 124.1551 123.9914 123.7829 123.5156 123.1566 122.8402 122.597 122.0645 121.4899 120.7697 119.7925 118.388 116.7296 114.8965 113.3445 111.2691 109.1352 -9999 -9999 
105.1661 105.9497 106.5691 107.0921 107.2039 107.2649 107.0387 106.9619 106.7955 106.1405 105.7248 104.9954 104.9289 104.5552 104.1483 103.3979 101.4426 101.6542 102.3275 103.3985 104.4483 105.2481 106.2606 107.0452 107.9687 108.9495 110.415 111.879 113.0735 113.9912 114.8892 115.6801 116.2983 117.0261 117.6985 118.1911 118.7763 119.7782 120.2469 120.8508 121.5158 121.7344 122.2641 122.8277 123.2358 123.5492 123.6945 123.4349 123.4282 123.3431 123.4181 123.5854 123.4778 123.4196 123.3968 123.3187 123.0216 122.9624 122.6902 122.3927 122.1958 121.7749 121.3677 120.5216 119.3514 117.7153 115.7591 114.0415 112.445 111.1411 109.1949 -9999 -9999 
104.5726 105.4462 105.9107 106.2926 106.267 106.2237 105.8317 105.4169 105.3523 104.7866 104.3733 104.0413 103.7811 103.4452 103.0657 102.3774 100.5788 101.6246 102.8346 104.0298 104.9493 106.2347 107.2539 108.0361 108.9367 110.0688 111.4626 112.6263 113.6105 114.6319 115.5067 116.0648 116.6912 117.3053 117.7238 118.4663 119.1064 119.7004 120.1659 120.7179 121.3491 121.7496 122.1623 122.7049 123.0185 123.2977 123.3443 122.8847 122.7506 122.8527 122.6409 122.8524 122.6451 122.7646 122.7539 122.6427 122.5829 122.308 122.2026 122.0727 121.831 121.5271 121.1144 120.2607 118.6785 116.8521 114.5524 113.0244 111.6961 110.9426 110.0246 -9999 -9999 
104.0438 104.8375 105.4571 105.5964 105.2087 105.1502 104.6921 103.6378 103.0578 102.778 102.6883 102.6999 102.5369 102.3253 101.9166 100.8662 100.1128 101.677 103.077 104.4821 105.8619 107.1521 107.966 108.9523 109.9648 110.9185 112.0161 113.104 114.1226 115.1397 115.8877 116.536 117.1029 117.5208 118.1262 118.7717 119.3066 119.8263 120.2238 120.759 121.1047 121.7895 122.3851 122.4836 122.6924 122.9688 123.0353 122.3674 122.116 122.0041 121.934 121.9642 121.7953 121.7816 121.909 121.9544 121.9679 121.76 121.7475 121.6347 121.5421 121.2811 120.7368 120.0418 118.7236 117.3639 115.7432 114.6761 113.8157 112.9488 111.4736 -9999 -9999 
103.7749 104.369 104.7159 104.7271 104.1745 103.6591 102.7206 101.5798 100.9586 100.823 100.9184 101.0869 101.1076 100.8419 100.687 99.78725 100.5358 101.9218 103.7561 104.9978 106.4529 107.7105 108.9343 110.1252 110.9856 111.7936 112.7531 113.7276 114.6865 115.5183 116.1696 116.7655 117.2685 117.75 118.2703 118.8799 119.4551 119.9019 120.1485 120.4606 120.9855 121.5488 121.863 122.2047 122.5269 122.6924 122.6076 121.8319 121.2784 121.1604 121.0742 120.9571 120.9132 121.0254 121.2595 121.1714 121.3013 121.1708 121.1818 121.1336 121.0254 120.9629 120.6651 119.9778 119.1738 118.0774 117.1691 116.4324 115.471 114.5606 112.8263 -9999 -9999 
103.3851 103.7475 103.9764 103.7981 103.1513 102.3018 100.9638 99.45319 98.6982 98.76069 99.24928 99.62419 99.49982 99.06122 98.97466 99.54036 101.3804 102.9608 104.5805 106.082 107.1975 108.4235 109.5948 110.7287 111.6598 112.4819 113.285 114.1692 115.0983 115.9276 116.444 116.9402 117.4663 117.9771 118.3852 119.0198 119.4337 119.883 120.2201 120.3963 120.7724 121.2549 121.76 122.0041 122.1404 122.1032 122.1081 121.2802 120.8526 120.4335 120.175 120.0757 120.0339 120.0528 120.2308 120.1226 120.1025 120.0321 120.3232 120.6124 120.7416 120.7243 120.5728 120.3427 119.4907 118.9452 118.1844 117.5614 116.6744 115.4585 113.5755 -9999 -9999 
102.8389 103.1675 103.0809 102.5853 101.8318 100.7596 99.31786 97.44426 95.87942 96.6088 97.23638 97.64969 97.96546 98.64059 100.1838 101.2799 102.5871 104.2556 105.5849 106.5822 107.826 109.1382 110.3467 111.3565 112.1877 112.9122 113.7242 114.5832 115.4576 116.2532 116.6079 116.9057 117.5897 118.2408 118.6059 119.2036 119.5956 120.0226 120.2293 120.5633 120.8346 121.1912 121.5241 121.6048 121.6957 121.6707 121.4939 120.0943 119.6748 119.2716 118.9887 118.8345 118.8778 119.054 119.1418 119.0232 118.8744 118.9845 119.6047 119.9178 120.3091 120.4719 120.4591 120.2896 119.8388 119.4155 118.9317 118.2633 117.33 115.7359 114.232 -9999 -9999 
102.3854 102.4381 102.0446 101.457 100.5072 99.19991 97.45705 95.58498 95.88886 96.85629 97.7393 98.57964 99.3453 100.2509 101.4685 102.7149 103.7436 105.1682 106.3642 107.3594 108.4597 109.8578 110.9777 111.7814 112.651 113.4706 114.1446 114.8855 115.6451 116.4577 116.9323 117.1953 117.6562 118.1359 118.5532 119.1991 119.7157 120.0744 120.3801 120.6776 120.8377 120.962 121.1757 121.3083 121.3009 121.1979 120.7103 119.2396 118.6339 117.8753 117.2617 117.0255 117.2352 117.5775 117.9296 117.6976 117.5577 118.1286 118.9732 119.4907 120.0622 120.2436 120.3311 120.2326 119.9592 119.7315 119.3999 118.7675 117.7174 116.3309 114.8194 -9999 -9999 
101.7145 101.4335 100.8687 100.1094 99.1935 97.93864 96.02114 95.39265 96.5582 98.13006 99.52269 100.3975 101.0357 101.9699 102.8374 104.073 105.0121 106.1237 106.9083 107.9748 109.0943 110.3199 111.4483 112.0984 113.0211 113.9915 114.589 115.283 116.0093 116.5893 117.0234 117.2319 117.626 118.1362 118.5331 119.0683 119.5596 119.9281 120.2095 120.2957 120.4451 120.5798 120.6773 120.7608 120.7819 120.4935 119.9815 118.5166 117.5629 116.59 115.8996 115.7743 115.6497 115.8106 116.0895 116.2218 116.5592 117.4577 118.4428 119.1262 119.6892 120.0007 120.1003 120.1244 119.8669 119.8129 119.5621 119.1192 118.1475 116.9771 115.4192 -9999 -9999 
100.9293 100.3353 99.43673 98.59853 97.7646 96.49937 95.10339 95.70629 97.23181 99.4087 100.3719 101.6188 102.3921 103.3363 104.2693 105.2462 106.1368 106.8266 107.5987 108.5061 109.4418 110.7186 111.6924 112.4124 113.4731 114.4265 115.0324 115.6911 116.1815 116.7664 117.2224 117.4882 117.8095 118.1612 118.6041 118.9324 119.2859 119.599 119.8041 119.8687 119.7962 119.9668 120.2558 120.4045 120.2732 119.9659 119.2557 117.6994 116.6421 115.4195 114.5003 114.3488 114.353 114.5253 114.7103 115.0221 115.778 117.045 118.1588 118.765 119.1856 119.5352 119.7416 119.8522 119.7078 119.6773 119.4255 119.128 118.4057 117.3855 115.8618 -9999 -9999 
99.93508 98.81738 97.64024 96.98248 95.89892 94.70106 94.23563 96.28175 98.13829 100.0116 101.3542 102.2628 103.429 104.362 105.249 106.1972 106.8934 107.5176 108.1982 109.0584 109.9383 110.9618 112.1192 112.7827 113.8544 114.6956 115.3845 115.9871 116.5464 117.0773 117.5876 117.8497 118.1155 118.4319 118.7105 119.0159 119.1631 119.4234 119.4539 119.6502 119.7474 119.8416 119.9418 119.8913 119.6645 119.3844 118.5855 117.0304 115.6247 114.2906 113.1887 112.9942 113.2457 113.5545 113.7078 114.297 115.3967 116.8765 117.9262 118.5584 119.0223 119.331 119.3554 119.4142 119.4133 119.3438 119.1259 118.8269 118.2493 117.2992 115.8892 -9999 -9999 
98.90822 97.55825 96.21926 94.67393 93.81287 93.64706 94.47824 96.97639 98.85396 100.6873 102.0461 103.1443 104.2181 105.0639 105.9326 106.7678 107.5185 108.0653 108.8377 109.5387 110.3355 111.3154 112.2359 112.9336 114.0053 114.9002 115.5689 116.2071 116.8369 117.4349 117.9795 118.235 118.1225 118.3706 118.8007 118.9915 119.2591 119.3578 119.3508 119.4145 119.3783 119.4289 119.6681 119.2436 119.0872 118.6855 117.9963 116.2248 114.891 113.3286 112.2155 111.9649 112.1947 112.7291 113.1832 113.8681 115.283 116.4394 117.6318 118.2353 118.7038 118.9945 119.0244 118.9744 118.9388 118.9052 118.8269 118.623 118.0704 117.1831 115.7844 -9999 -9999 
98.06117 96.51096 94.0052 92.92407 92.88567 93.36116 95.6118 98.0563 99.67265 101.2945 102.6365 103.7487 104.8722 105.5955 106.4831 107.3396 108.0815 108.6408 109.4043 110.0624 110.7445 111.6885 112.3755 113.0756 113.9513 114.9812 115.7579 116.4903 117.1029 117.5842 118.1508 118.4313 118.4794 118.6894 118.9418 118.9381 119.207 119.413 119.1948 119.1158 119.1277 119.139 119.2176 118.6446 118.4627 118.1115 117.3639 115.4201 114.1759 112.6626 111.3437 111.1664 111.3346 111.9786 112.6998 113.77 115.1169 116.1913 117.2264 117.9192 118.2075 118.441 118.4678 118.4294 118.5629 118.4584 118.3154 118.1326 117.8582 117.1797 115.8103 -9999 -9999 
97.12666 95.42313 92.94572 91.98985 93.57513 95.02445 96.66092 98.62993 100.1305 101.9172 103.2419 104.2709 105.1481 105.9247 106.8781 107.7873 108.5655 109.0901 109.8435 110.5052 111.2392 111.9646 112.7461 113.6386 114.3652 115.1665 115.8834 116.5049 117.0572 117.6421 118.1143 118.3517 118.559 118.6446 118.8211 119.1314 119.1933 119.1661 119.1981 119.1847 118.9351 119.0704 118.6653 118.139 117.8342 117.3181 116.3739 114.208 112.9476 111.6821 110.6991 110.3437 110.6543 111.2874 112.3237 113.5036 114.909 116.0303 116.9097 117.3489 117.7845 117.8555 117.9482 117.9936 118.0112 117.9478 117.8832 117.9725 117.4906 116.8695 116.8695 115.7984 -9999 
96.40733 94.72727 92.32606 92.0301 93.82111 95.71269 97.53844 99.26299 100.6392 102.2342 103.5531 104.8256 105.6848 106.5822 107.3155 107.9739 108.7859 109.4141 109.4141 110.1252 110.7707 111.5263 112.3563 112.9878 113.7245 114.6292 115.3247 115.8414 116.4796 117.0923 117.4541 118.032 118.3804 118.5751 118.723 118.9534 119.1021 119.0217 118.9896 119.0095 118.9366 118.8406 118.4925 118.1639 117.679 117.1103 116.3745 114.0367 112.8693 111.6382 110.5833 109.7615 109.678 109.9834 110.8832 112.1765 113.4185 114.5957 115.6743 116.4918 116.9771 117.0746 117.2136 117.3184 117.3593 117.4971 117.4992 117.3977 117.1987 116.9076 116.3922 115.6704 -9999 
-9999 95.61851 94.06951 91.94597 91.3702 94.15912 96.15464 98.2532 100.0448 101.1214 102.6539 104.0855 105.1706 106.0908 106.8281 107.5194 108.2881 109.0763 109.6042 110.3489 111.1002 111.8302 112.4474 113.0427 113.7995 114.7374 115.3269 115.9237 116.5826 117.0575 117.4888 117.9293 118.2493 118.5611 118.665 118.9049 118.9327 118.7769 118.7842 118.7507 118.4416 118.4148 118.0948 117.747 117.1389 116.3467 115.3516 112.4898 111.313 110.3727 109.5713 108.9861 108.9096 109.3543 110.5863 112.0003 113.175 114.232 115.2717 115.9179 116.4071 116.6153 116.6095 116.7549 116.8338 116.8856 116.7369 116.618 116.6186 116.4434 116.0471 115.4753 -9999 
-9999 94.61144 93.11366 91.43117 91.67104 94.04269 96.29546 98.36597 100.231 101.6365 103.051 104.2779 105.3922 106.3417 107.0046 107.524 108.1333 109.0477 109.7371 110.5214 111.2727 111.9792 112.8025 113.5627 114.2945 114.8822 115.4509 115.9727 116.5122 117.0392 117.5748 117.925 118.2173 118.4672 118.6827 118.6964 118.6882 118.776 118.6785 118.2819 118.0862 117.701 117.4702 116.9917 116.4711 115.1629 113.9726 111.1974 109.7774 108.8548 108.122 107.9839 108.3652 109.2239 110.4903 111.7369 112.8687 113.8821 114.7871 115.4756 115.9118 116.0151 116.0794 116.0386 116.1126 116.1056 115.8216 115.6039 115.5725 115.6585 115.4439 115.0775 -9999 
-9999 93.48643 92.10812 91.03767 91.30009 94.05214 96.28266 98.38548 100.1582 101.8059 103.151 104.3717 105.5416 106.1878 106.8687 107.3454 107.9431 108.8069 109.7515 110.5872 111.3352 112.2487 113.1107 113.8577 114.5268 115.0684 115.6387 116.1389 116.7064 117.1511 117.5824 117.9189 118.1079 118.3468 118.2676 118.3298 118.4008 118.281 118.2755 117.8985 117.726 117.5309 117.0523 116.5025 115.6295 114.1811 112.6702 110.244 108.7676 107.6977 107.2335 107.2875 108.1135 109.3766 110.3885 111.5029 112.73 113.5097 114.3143 114.8331 115.1711 115.3574 115.4601 115.2894 115.1309 115.2037 114.9642 114.6402 114.6819 114.6831 114.5451 114.5469 -9999 
-9999 92.39311 91.09375 91.34582 91.52778 93.98173 96.47987 99.39497 100.2182 101.7151 103.0733 103.9481 105.0798 105.4407 106.0027 106.6087 107.4088 108.3451 109.4918 110.5409 111.4904 112.3484 113.1982 113.9068 114.5591 115.1483 115.6887 116.127 116.6646 117.2499 117.5531 117.7848 117.9119 118.0655 117.9454 118.0371 118.1896 117.8994 117.8899 117.6092 117.4434 117.1447 116.5421 115.7128 114.7599 113.296 111.7677 109.5149 107.6429 106.7983 106.6809 106.8723 107.9541 109.1126 110.1965 111.3565 112.3603 113.0762 113.8227 114.2369 114.4637 114.6438 114.6868 114.5569 114.3277 114.1433 113.8562 113.549 113.6069 113.8041 113.9861 114.0321 -9999 
-9999 91.25895 90.21532 90.2653 91.83015 94.17833 96.34759 98.47478 100.0274 101.5786 102.8224 103.4455 103.8932 104.0676 104.7878 105.6632 106.7614 107.926 109.2818 110.3632 111.3727 112.2874 113.3219 114.0915 114.7176 115.2388 115.746 116.2998 116.7747 117.1599 117.5455 117.6452 117.6641 117.9043 117.9789 117.9588 117.9015 117.675 117.4388 117.3044 117.1968 116.7037 115.9484 115.0678 113.9967 112.7208 110.9984 108.4731 106.9208 106.0411 106.0817 106.6974 107.8468 108.9477 110.0395 111.0572 112.0396 112.619 113.2759 113.6264 113.8257 113.8739 113.7108 113.5545 113.2219 113.0753 112.6117 112.4916 112.3971 112.6379 112.9263 113.3256 -9999 
-9999 90.29974 89.63681 89.18935 91.21262 93.75587 96.04309 97.99564 99.66564 101.1025 102.0772 102.4817 102.518 102.4991 103.0178 104.48 106.2892 107.4441 108.8456 110.1404 111.2435 112.3734 113.3789 114.2357 114.8535 115.358 115.7551 116.3016 116.8018 117.1776 117.5428 117.672 117.7759 117.6741 117.7525 117.7339 117.7345 117.4791 117.3959 117.2364 116.9024 116.1645 115.3549 114.4405 113.2375 111.8628 110.2169 107.6487 106.3883 105.0472 105.5056 106.253 107.4204 108.7496 110.0913 110.9713 111.7375 112.3343 112.747 112.8732 113.0805 112.9452 112.7333 112.4304 112.1478 111.8363 111.3709 111.1103 111.1203 111.5324 112.018 112.4331 -9999 
-9999 89.65936 89.06622 89.34237 90.34486 92.49644 94.93911 96.76608 98.59091 99.92776 100.6346 100.6831 100.4831 100.3822 101.8998 103.7451 105.6455 107.1101 108.6399 110.0252 111.2203 112.4346 113.4877 114.1503 114.7392 115.2427 115.8258 116.1602 116.6116 117.0972 117.4105 117.5254 117.6098 117.5498 117.5309 117.5144 117.4126 117.3437 117.1712 116.8426 116.3937 115.5975 114.7679 113.6331 112.4182 111.1087 109.3714 106.9119 105.8595 104.4461 105.0121 105.9573 107.1412 108.3893 109.7771 110.6488 111.3626 111.9427 112.099 112.1917 112.2045 111.9034 111.7409 111.2581 110.7832 110.5372 110.0651 109.6768 109.8679 110.6028 111.1913 111.8144 -9999 
-9999 89.11194 89.00221 88.55537 89.03268 90.74902 92.82623 95.04823 97.08429 98.17487 98.69698 98.55983 97.88195 99.34133 101.2357 103.1678 105.2005 106.972 108.5045 109.9081 111.1484 112.3222 113.2981 114.0275 114.7609 115.2208 115.5948 116.0995 116.5302 116.8076 117.1154 117.4367 117.5461 117.5041 117.3684 117.3123 117.1794 117.0356 116.6939 116.2882 115.8466 115.1489 114.1586 112.9619 111.9162 110.3041 108.4704 106.1387 105.0755 103.7292 104.5327 105.6272 106.9464 108.1778 109.2418 110.1502 110.8146 111.2374 111.4937 111.551 111.3828 110.9749 110.5909 109.8362 109.0428 108.7347 108.4637 108.25 108.6322 109.5805 110.5287 111.238 -9999 
-9999 88.7599 88.59866 88.11951 88.07653 89.08969 90.85814 93.02039 94.92204 95.96781 96.11015 95.19148 96.24883 98.95789 101.033 103.0151 104.9878 106.8571 108.4719 109.8234 111.0295 112.1207 113.0595 113.8888 114.4939 115.1638 115.4232 115.9618 116.362 116.5549 116.7594 117.0709 117.1657 117.1694 117.1941 117.1115 116.9073 116.632 116.2611 115.7865 115.3238 114.6237 113.6873 112.3868 111.2081 109.5637 107.7934 105.3752 104.2724 103.3717 104.1011 105.2145 106.5349 107.6508 108.6453 109.5408 110.234 110.6762 110.8689 110.7436 110.3979 109.8902 109.4086 108.3698 107.5578 106.8793 106.7455 106.933 107.9355 108.9697 109.9087 110.5948 -9999 
-9999 88.38194 88.16615 87.86652 87.6489 87.52819 88.23198 90.16837 92.09837 93.29562 93.46935 92.92956 96.16044 98.77654 100.7724 102.8734 104.8802 106.7221 108.3457 109.7021 110.8585 111.8924 112.8257 113.6014 114.3009 114.8364 115.2004 115.8078 115.9986 116.3004 116.4232 116.7244 116.9237 116.8433 116.7433 116.6104 116.4028 116.1654 115.8484 115.4582 114.9751 114.0126 112.983 111.6952 110.3949 108.8663 107.0918 104.8119 103.4887 102.8304 103.5689 104.7021 106.0427 107.1844 108.1424 109.0334 109.7201 110.1477 110.2227 109.9533 109.4144 108.8474 108.0848 107.1317 106.0186 105.4163 105.4763 106.1987 107.2719 108.3966 109.3305 109.9566 -9999 
-9999 88.06922 88.11158 87.95492 87.14141 87.13318 86.87013 87.2548 87.64677 88.64163 89.87424 93.0655 95.72275 98.39919 100.4859 102.6859 104.7598 106.5105 108.1083 109.4287 110.607 111.6815 112.6129 113.3637 114.0181 114.6277 114.9376 115.3558 115.6292 116.045 116.3251 116.4997 116.4985 116.5354 116.4729 116.1645 115.9017 115.6079 115.3787 114.8852 114.2524 113.3268 112.2475 111.0841 109.7582 108.2 106.3688 103.9972 102.867 101.7944 103.1163 104.213 105.4184 106.6971 107.6654 108.4731 109.0937 109.5451 109.4049 108.9239 108.5003 107.7435 106.9089 105.8333 104.6982 104.4254 104.7878 105.5327 106.6492 107.7242 108.7331 109.4759 -9999 
-9999 87.82111 87.21152 87.57545 87.01278 86.70188 86.3791 86.41171 86.34161 87.26972 89.39936 92.27302 95.52646 98.39645 100.3204 102.375 104.2462 106.3216 107.8282 109.1437 110.3355 111.4248 112.2472 113.0268 113.6724 114.2451 114.6685 115.1422 115.5661 115.7161 115.892 116.1514 116.0849 116.0444 115.9532 115.7286 115.3848 115.0949 114.7334 114.2549 113.4597 112.5562 111.6458 110.4062 109.1663 107.5152 105.6995 103.3315 102.5929 101.5383 102.8688 104.0078 105.0704 106.3075 107.2424 107.9272 108.5862 108.848 108.5874 108.204 107.3588 106.7102 105.8939 104.779 103.6472 103.3583 104.0215 104.9734 106.1198 107.3003 108.2458 109.0154 -9999 
-9999 88.79465 88.59713 87.73394 87.84855 87.6169 87.22645 87.0393 86.70615 86.16148 87.72906 91.23975 95.14424 98.2541 100.4157 102.3323 104.0709 105.8385 107.4676 108.7944 109.9846 111.0764 111.907 112.6385 113.3042 113.9312 114.3137 114.8358 115.2248 115.3064 115.5408 115.5869 115.6984 115.7036 115.4186 115.2918 114.9184 114.5481 114.0717 113.4932 112.8592 112.0359 111.1749 109.9011 108.4872 106.951 105.0082 102.6771 101.9196 101.1994 102.6475 103.8947 104.9585 105.9287 106.7769 107.5862 108.1214 108.1927 107.8882 107.2585 106.4459 105.7397 104.6897 103.8978 102.9544 102.6868 103.443 104.5583 105.6595 106.8181 107.7626 108.5652 -9999 
-9999 89.74928 88.74892 88.20851 87.73454 87.45108 87.15848 86.68116 86.49187 86.06851 87.73547 91.28669 95.59625 98.07794 100.1957 102.1805 103.8923 105.7193 107.2902 108.507 109.6661 110.6579 111.4904 112.2789 112.9942 113.5347 113.9983 114.4878 114.7901 115.019 115.1489 115.2153 115.3811 115.3186 115.087 114.7974 114.5774 114.086 113.5493 112.9769 112.3093 111.4696 110.4988 109.3753 108.0955 106.5026 104.6702 102.5292 100.9964 100.8644 102.3741 103.4793 104.611 105.6528 106.648 107.3097 107.7995 107.6017 107.0674 106.3191 105.3706 104.4653 103.4061 102.5265 101.9839 102.0117 102.9672 104.1511 105.338 106.4334 107.3189 108.0717 -9999 
-9999 90.76212 89.80201 88.57823 87.72632 87.26698 86.92896 86.60343 85.79755 86.62691 89.60053 92.58087 95.50359 97.93742 100.2109 101.9233 103.7265 105.4779 106.9479 108.1808 109.3046 110.3669 111.1749 111.8979 112.5437 113.1213 113.6633 114.1378 114.4942 114.6417 114.8203 115.0071 115.0306 114.8486 114.6889 114.4256 113.972 113.4837 112.9519 112.3935 111.6796 110.8667 109.9243 108.7999 107.4911 105.9351 104.1657 102.2375 100.4304 100.9793 102.0666 103.1352 104.2657 105.3383 106.3273 107.1646 107.3557 107.0455 106.3712 105.3809 104.2751 103.2653 102.3317 101.4457 101.0232 101.3286 102.4689 103.6984 104.8094 105.9101 106.8318 107.5837 -9999 
-9999 91.72072 90.35583 88.56878 87.6047 86.80399 86.68817 86.13161 85.79907 87.9153 90.35339 92.98534 95.42252 97.78259 99.97318 101.6935 103.6497 105.1633 106.5608 107.7931 108.9636 110.0267 110.8606 111.6949 112.2076 112.9129 113.4828 113.9065 114.0796 114.385 114.5131 114.5972 114.6804 114.5155 114.2851 113.9483 113.4414 112.8071 112.3764 111.7949 111.0917 110.1825 109.2979 108.201 106.8452 105.2743 103.8021 101.8998 100.4298 100.5307 101.6209 102.8545 103.9188 105.0755 106.1429 106.919 106.9309 106.5965 105.6769 104.6317 103.4382 102.2174 101.2707 100.4471 100.1954 100.7077 101.7764 102.97 104.0298 105.1493 106.1338 107.0016 -9999 
-9999 92.25961 90.52895 88.68919 87.54282 86.79729 86.31875 85.871 86.64642 88.31153 90.63503 92.98778 95.52097 97.62743 99.71928 101.6874 103.3406 104.8152 106.2688 107.4633 108.5725 109.6146 110.4873 111.3358 112.0323 112.6788 113.2783 113.688 113.9321 114.0632 114.1412 114.2793 114.2586 114.126 113.8242 113.3722 112.783 112.2277 111.8671 111.2907 110.5013 109.5329 108.7264 107.5392 106.064 104.6122 103.3915 101.0436 100.1021 99.87839 101.193 102.4177 103.5771 104.8731 105.9207 106.6117 106.5858 106.0125 105.0993 104.0862 102.8514 101.4076 100.2332 99.76043 99.41906 100.0451 101.0388 102.1729 103.2169 104.3407 105.4562 106.3825 -9999 
-9999 92.42451 90.61308 88.69558 87.313 86.57936 86.188 85.52536 86.83081 88.4359 90.71336 93.07739 95.43806 97.6058 99.67082 101.3884 102.93 104.3998 105.8832 107.0607 108.3427 109.3251 110.273 111.1023 111.7741 112.3865 112.9912 113.4585 113.6163 113.656 113.7453 113.8946 113.8065 113.606 113.2622 112.7943 112.2697 111.7787 111.2023 110.4729 109.7341 108.877 107.7675 106.6882 105.4081 103.9725 102.5122 100.3834 99.98689 99.82109 100.8797 102.2119 103.411 104.5961 105.6632 106.1984 105.9003 105.4376 104.5586 103.3656 102.0906 100.7651 99.6123 98.99051 98.82409 99.36633 100.3066 101.5472 102.5859 103.6521 104.7781 105.7516 -9999 
-9999 92.2209 90.2016 88.32404 87.18256 85.88624 85.99719 86.28888 86.89635 88.38255 90.53536 93.06184 95.18142 97.32813 99.39376 101.1418 102.6774 104.1276 105.5532 106.8635 108.012 109.0455 109.9822 110.764 111.5053 112.1545 112.6702 113.1055 113.2116 113.3457 113.3926 113.4524 113.2237 112.9613 112.626 112.1594 111.6272 111.1212 110.5229 109.895 109.0114 108.083 106.9952 105.7583 104.4449 103.2129 101.6673 99.83267 99.48824 100.0284 100.8318 102.1184 103.337 104.5208 105.4166 105.7296 105.4605 105.0088 104.0398 102.8179 101.5356 100.1363 98.79787 98.45863 98.209 98.72808 99.56261 100.6471 101.6938 102.8837 104.1038 105.1868 -9999 
-9999 91.74267 89.75964 87.91408 85.81369 85.23367 85.9658 86.04138 86.98992 88.54349 90.83192 93.15237 95.10156 97.19067 99.10815 100.9863 102.5731 104.0499 105.2925 106.6544 107.7998 108.7999 109.7932 110.5394 111.2063 111.875 112.3633 112.6431 112.8793 112.9348 112.8918 112.8278 112.52 112.178 111.7821 111.6354 111.2023 110.4809 109.9432 109.2172 108.3375 107.3286 106.1603 104.8369 103.4827 102.1098 100.962 99.26513 99.14047 99.93203 101.0717 102.0516 103.3101 104.4952 105.2349 105.1593 105.1743 104.7384 103.6381 102.3491 100.9781 99.44222 98.12944 97.69694 97.86183 98.21693 98.93443 99.54829 100.4514 102.0897 103.5701 104.8533 -9999 
-9999 90.85021 89.21435 87.23955 85.18886 85.83443 85.94659 86.14288 86.92226 88.50082 90.98371 93.03319 95.30059 97.2821 99.1871 100.8973 102.5222 103.9844 105.2081 106.4794 107.649 108.4576 109.5506 110.3004 110.9268 111.5925 111.9686 112.2895 112.455 112.4471 112.3325 112.0966 111.8299 111.3767 111.0642 110.8899 110.4876 109.7874 109.336 108.4561 107.6148 106.6203 105.3163 103.8746 102.5262 101.0439 100.0817 98.533 98.84663 99.9549 101.239 102.2339 103.3242 104.4601 105.1411 105.1706 104.9122 104.4272 103.2934 101.9907 100.6456 99.06335 97.6375 97.14799 97.13366 97.67651 98.52264 99.54799 100.8172 102.2324 103.4948 104.6909 -9999 
-9999 90.08425 88.68431 87.48643 85.42812 85.69361 85.75761 85.94384 87.16091 88.93363 90.97305 93.30477 95.50572 97.31716 99.19655 100.7553 102.432 103.91 105.1746 106.4368 107.5197 108.3351 109.2598 110.0736 110.7226 111.2157 111.5699 111.8878 112.0268 111.8406 111.6324 111.4535 111.1792 110.6893 110.4888 110.1611 109.6686 109.1257 108.557 107.8462 106.7992 105.8025 104.3644 102.9797 101.6508 100.1039 99.08347 98.533 98.78081 100.0585 101.3302 102.414 103.3729 104.3279 104.9963 104.8036 104.59 104.1447 103.0242 101.7237 100.1868 98.7299 97.29704 96.58868 96.84197 97.59848 98.43211 99.65314 100.9958 102.2744 103.4455 104.5653 -9999 
-9999 89.47252 87.99424 86.51717 84.95051 85.69848 85.65794 86.41171 87.73547 89.30914 91.61709 93.69857 95.85411 97.42109 99.09719 100.6834 102.3759 103.807 105.1121 106.3136 107.3475 108.2153 109.0346 109.7768 110.4809 110.8527 111.1932 111.316 111.224 111.1551 110.9073 110.6772 110.4668 110.1169 109.8313 109.2641 108.8932 108.4091 107.6767 106.8824 105.8887 104.7802 103.646 102.2763 100.8227 99.28281 98.54794 98.36109 98.65919 99.98476 101.378 102.4585 103.507 104.4534 105.0137 104.8094 104.5025 103.7954 102.5963 101.3701 99.82291 98.24009 96.63593 96.18208 96.53138 97.15865 98.35957 99.72355 101.1704 102.3207 103.3162 104.2072 -9999 
-9999 88.58006 87.01157 85.73293 84.78286 85.53419 85.7439 86.81985 88.44504 90.23726 92.09197 93.93662 95.66056 97.30557 99.0027 100.6889 102.2796 103.757 105.1685 106.2298 107.2274 108.0705 108.8133 109.5521 110.1367 110.5406 110.6576 110.689 110.7067 110.4696 110.2629 109.9816 109.7591 109.4942 109.0483 108.4296 108.2198 107.5658 106.8303 105.961 104.9088 103.8259 102.7389 101.2994 99.77719 98.56074 97.89323 97.64421 98.68723 100.2786 101.5929 102.5905 103.5204 104.3803 104.9551 104.8701 104.3205 103.4491 102.1866 100.7852 99.30598 97.62988 96.07571 95.74957 96.20189 97.01022 98.48423 99.82627 101.1951 102.2817 103.1946 103.8408 -9999 
-9999 87.39439 86.16788 85.18459 84.66978 85.25591 85.26109 86.92286 88.60018 90.76274 92.20566 94.14358 95.85229 97.69846 99.19564 100.7419 102.2327 103.7655 104.9686 106.0475 107.0619 107.8203 108.4948 109.1004 109.6341 110.0182 110.2901 110.1791 110.0459 109.8152 109.6314 109.3095 108.9517 108.6316 108.1961 107.8669 107.3667 106.7233 105.9354 104.9618 103.9706 102.8157 101.5981 100.1439 98.90547 97.90542 97.60733 97.31685 98.70216 100.5465 101.7316 102.7673 103.5726 104.2565 104.7308 104.7506 104.052 102.9998 101.7718 100.3444 98.72381 97.07667 95.41673 95.37741 95.79651 97.01449 98.4821 99.8348 101.1208 102.0391 102.7856 103.4226 -9999 
-9999 86.51109 85.88411 85.27573 85.48055 85.11022 85.09163 87.0582 88.9949 90.84016 92.65219 94.40388 95.98853 97.79568 99.35535 100.8065 102.3116 103.6661 104.7972 105.8988 106.7525 107.4585 108.0537 108.6545 109.0389 109.3208 109.6213 109.5448 109.2504 109.0562 108.9828 108.6758 108.2592 107.8139 107.3506 107.0272 106.4959 105.718 104.9189 103.9761 102.8685 101.6761 100.4002 98.96399 97.90786 97.15257 96.68164 97.2309 98.99538 100.6995 101.9739 102.7975 103.6177 104.1816 104.5534 104.4614 103.6424 102.5807 101.3396 99.85979 98.22851 96.45304 94.97081 94.79128 95.60844 96.82552 98.45589 99.78542 100.954 101.7669 102.4866 103.08 -9999 
-9999 86.12642 85.55706 85.2998 84.60365 85.26963 84.82858 86.64611 88.9888 90.92702 92.74516 94.52061 96.16502 98.04807 99.55439 100.9866 102.3762 103.7128 104.7049 105.7287 106.5209 107.1024 107.5213 108.143 108.525 108.7374 108.8541 108.7877 108.432 108.1644 108.0577 107.8513 107.3475 106.9434 106.5864 106.107 105.5364 104.6906 103.8548 102.9233 101.6791 100.3298 99.15296 97.85422 96.87458 96.35674 96.16409 97.27235 99.31025 100.8803 102.1068 102.8816 103.6591 104.1611 104.479 104.2383 103.4452 102.2842 100.8705 99.33828 97.69328 95.83949 94.97111 94.39565 95.10095 96.62038 98.21784 99.51689 100.5627 101.4182 101.8751 102.4923 -9999 
-9999 85.89204 85.97859 85.44794 84.77037 84.88162 85.08218 85.67532 88.69222 91.16354 92.94144 94.66723 96.41007 98.24405 99.71928 101.1579 102.5314 103.6972 104.6881 105.5873 106.3295 106.8705 107.2826 107.6096 107.9513 108.1601 108.1714 107.9748 107.6761 107.5615 107.2823 106.8632 106.4185 106.0588 105.704 105.0304 104.2526 103.5573 102.7709 101.6849 100.5035 99.33675 98.05142 96.82337 96.02969 95.88276 96.07022 97.62225 99.94301 100.9943 102.1229 102.8389 103.6628 104.2014 104.1816 104.0429 103.1666 102.0388 100.6072 98.98136 97.23242 95.26829 93.69674 93.76472 95.02079 96.34363 97.90206 99.08561 100.0783 100.8915 101.4774 102.0952 -9999 
-9999 85.73658 86.17641 86.26084 84.92917 85.75487 85.16417 87.19932 89.17473 91.52107 93.26606 94.94429 96.66672 98.37878 99.8982 101.3183 102.6185 103.6616 104.6772 105.4715 106.0762 106.4337 106.8824 107.1658 107.3881 107.5027 107.385 107.2853 107.0592 106.8467 106.4953 105.9174 105.5504 105.1206 104.5696 104.0136 103.4214 102.7045 101.5386 100.395 99.20478 98.07093 97.19615 96.06016 95.35881 95.4911 96.77035 98.29099 100.3216 101.1122 102.0726 102.9057 103.532 104.2084 104.0468 103.8152 102.909 101.7971 100.2838 98.78172 96.9267 94.93148 93.65925 93.33006 94.50934 95.84802 97.27876 98.47174 99.4218 100.2192 100.862 101.4859 -9999 
-9999 85.54365 85.29432 85.17575 84.52287 84.45886 84.45094 86.91768 89.66363 91.88805 93.56902 95.2177 96.91421 98.4632 99.92807 101.5149 102.6896 103.6936 104.5464 105.3057 105.7437 106.2137 106.4487 106.6212 106.7507 106.6913 106.6257 106.5889 106.4746 106.2109 105.683 105.0615 104.707 104.2254 103.5735 102.8026 102.1083 101.1427 100.2249 99.09689 97.72467 96.41708 95.78249 95.14697 95.23263 95.9547 97.31228 99.04172 100.4221 101.1814 102.073 103.0184 103.5823 104.0776 103.8411 103.618 102.6502 101.5475 100.0997 98.41261 96.70695 95.01347 93.28496 93.0719 93.93357 95.28414 96.67281 97.6695 98.5458 99.41814 100.1436 100.7468 -9999 
-9999 85.2425 84.94135 85.05414 84.47289 84.19582 86.05997 88.4743 90.60059 92.17731 93.92046 95.46581 97.13153 98.62688 100.0384 101.396 102.5515 103.6421 104.3276 104.95 105.4663 105.7214 105.9406 105.9762 106.1079 106.0689 105.9985 105.9826 105.8592 105.5632 104.9606 104.5095 103.9081 103.0986 102.2647 101.5383 100.9034 100.1856 98.94143 97.5677 96.10954 95.11436 94.66845 94.37187 95.0787 96.34485 97.70364 99.16425 100.3688 101.2899 102.1376 103.0404 103.6 103.9228 103.774 103.4671 102.5494 101.3954 99.89455 98.24039 96.43628 94.49287 93.05544 92.73296 93.33982 94.61602 95.87545 96.89043 97.77374 98.56043 99.28891 99.99085 -9999 
-9999 85.18733 84.65698 84.78073 84.47959 84.18759 86.08101 88.95252 90.63685 92.39859 94.21703 95.71178 97.26077 98.76862 100.2201 101.3387 102.4975 103.3196 104.1395 104.7067 104.978 105.2779 105.3748 105.3675 105.4126 105.4196 105.4041 105.3474 105.2755 104.8747 104.3306 103.8359 102.8587 102.012 101.1141 100.1887 99.57938 98.94265 97.6311 96.21043 95.02871 94.52732 93.42394 94.25635 95.31157 96.54266 98.02216 99.45959 100.477 101.3792 102.0958 102.8718 103.4732 103.7926 103.678 103.077 102.2052 101.0479 99.6437 98.11116 96.43994 94.4182 92.61927 92.22029 92.87135 93.95826 95.06011 96.11838 97.07178 97.92401 98.59975 99.14108 -9999 
-9999 84.94135 84.65118 84.36559 83.72643 84.35828 85.96762 88.76417 90.82491 92.51747 94.19234 95.92086 97.38878 98.89602 100.2442 101.4548 102.3421 103.2406 103.8259 104.3004 104.4906 104.5653 104.7457 104.7832 104.7546 104.7128 104.6772 104.64 104.4592 104.116 103.5558 102.8304 101.9797 100.9412 99.74976 98.76008 98.16969 97.61586 96.25309 94.85193 93.79793 93.38097 93.52271 94.45935 95.61332 96.81393 98.0752 99.53945 100.5959 101.4161 102.0818 102.6822 103.1922 103.351 103.1955 102.6704 101.8386 100.6611 99.33067 97.78167 96.02267 94.13779 92.21176 91.69329 92.3858 93.24564 94.26611 95.30547 96.14764 96.94591 97.6625 98.24741 -9999 
-9999 84.64175 84.41862 84.45307 84.03001 84.67862 86.11423 88.76873 90.6777 92.38092 94.35847 95.93459 97.46011 98.94845 100.1116 101.2146 102.2269 103.0334 103.4839 103.8472 103.9673 104.0167 104.0545 104.1334 104.0804 104.0182 104.0907 103.9664 103.8036 103.5232 102.9797 102.1921 101.232 100.199 98.78172 97.31867 96.46859 95.7514 94.71935 93.59189 92.86433 92.55953 93.71168 94.91534 96.10435 97.30709 98.32391 99.54311 100.6404 101.4417 101.9821 102.5238 102.8282 102.9118 102.7271 102.1815 101.2838 99.95702 98.72838 97.31471 95.70415 93.86713 91.89751 91.19342 91.71494 92.45072 93.41571 94.45539 95.19971 95.94495 96.6981 97.37415 -9999 
-9999 84.38692 84.02666 83.62341 84.20435 84.70301 86.91586 89.03178 90.7664 92.48242 94.38742 95.87972 97.49059 98.80488 99.99147 101.0424 101.9394 102.5625 102.9486 103.2217 103.4327 103.3367 103.1964 103.2111 103.2358 103.2336 103.151 103.1181 102.9432 102.7874 102.2229 101.485 100.5337 99.35474 98.07124 96.61977 94.9388 94.53768 93.47728 92.82075 92.44402 93.24197 94.11493 95.27164 96.55241 97.75119 98.88535 99.64217 100.5724 101.3445 101.9035 102.2878 102.453 102.4634 102.0586 101.5213 100.6626 99.60224 98.25228 96.93189 95.36826 93.55379 91.82191 90.78896 91.01968 91.69025 92.46901 93.42851 94.19783 94.96715 95.73494 96.32777 -9999 
-9999 84.04342 83.85079 83.94161 84.83347 86.17062 87.74461 89.5984 90.98128 92.63421 94.367 95.91355 97.3586 98.58238 99.77232 100.7974 101.4283 102.0025 102.3381 102.5905 102.5981 102.5125 102.3631 102.1921 102.1726 102.2141 102.2385 102.3714 102.2433 101.8904 101.4137 100.6995 99.65406 98.46747 97.11141 95.70811 94.2914 93.19047 92.56532 91.8082 92.30563 93.30659 94.44837 95.71818 96.96054 97.99229 98.8314 99.78329 100.6782 101.204 101.6813 101.9029 101.9212 101.8187 101.489 100.8013 100.0521 99.0097 97.6942 96.40276 94.98239 93.30172 91.79539 90.67617 90.41526 90.78041 91.53693 92.42085 93.25966 94.15059 94.7675 95.36674 -9999 
-9999 83.60603 83.74624 84.13669 85.43483 86.94755 88.12164 89.73556 91.10868 92.6269 94.35725 95.78005 97.07728 98.23552 99.36115 100.3776 100.9223 101.3942 101.7438 101.802 101.7468 101.6392 101.4606 101.3493 101.31 101.3021 101.3198 101.5143 101.4609 101.3305 100.8766 99.86407 98.90638 97.82373 96.34972 94.79463 93.29471 92.37574 91.98132 91.78992 92.6464 93.75861 94.87936 96.21622 97.3269 98.29373 99.30963 99.98141 100.6236 101.0695 101.3539 101.5011 101.5167 101.1979 100.8324 100.2502 99.30598 98.40681 97.21779 95.88886 94.37736 92.88963 91.54576 90.62009 89.90807 89.86997 90.53809 91.36838 92.34007 93.08745 93.72234 94.32433 -9999 
-9999 83.94924 83.87517 84.20679 85.27847 86.47969 87.81227 89.48014 91.07638 92.53179 94.08902 95.47525 96.69689 97.71278 98.78172 99.65284 100.2816 100.6626 101.0092 100.8787 100.6776 100.6456 100.3523 100.0579 100.0433 100.2344 100.4694 100.4886 100.6166 100.4636 100.0274 99.34712 98.2151 97.17725 95.54444 93.93966 92.3224 91.71341 91.22664 92.19195 93.25996 94.24964 95.4146 96.64598 97.69328 98.56348 99.44191 100.0497 100.3499 100.6456 100.8769 100.9443 100.7391 100.3844 99.95612 99.38889 98.54123 97.63536 96.53442 95.29968 93.86742 92.39981 91.22816 90.35948 89.70599 89.36888 89.82853 90.57986 91.41623 92.12946 92.786 93.23924 -9999 
-9999 83.65845 83.91632 84.04402 84.72953 85.74085 87.18591 88.93455 90.55943 91.92403 93.48643 94.74494 95.9544 97.15835 98.15262 98.96429 99.53152 99.98141 100.1442 100.0722 99.90796 99.49312 99.05025 98.85365 98.70552 99.22124 99.33554 99.47179 99.84852 99.72507 99.32243 98.65218 97.78868 96.50334 95.00616 93.35049 91.78442 91.03675 91.20226 92.47997 93.68943 94.78122 95.94038 96.99986 97.88255 98.76374 99.55652 100.0826 100.0881 100.1469 100.1658 100.1079 99.92532 99.51385 99.07158 98.5077 97.72192 96.78254 95.77882 94.59925 93.23344 91.78656 90.735 90.12235 89.51945 88.69437 88.61329 89.66424 90.43995 91.1675 91.66738 92.11818 -9999 
-9999 83.76605 83.79044 84.0358 84.22112 84.93252 86.31357 88.09544 89.82182 91.34033 92.78813 94.02197 95.2942 96.38813 97.42383 98.11908 98.77227 99.1045 99.31847 99.17765 98.99934 98.43729 97.93803 97.48663 97.67499 97.93254 98.27026 98.6153 98.98167 98.87682 98.69546 98.17761 97.03278 95.78736 94.42857 92.69303 91.16447 90.27232 91.18275 92.40378 93.669 95.09029 96.20677 97.23059 98.05873 98.74636 99.28647 99.82475 99.51476 99.46112 99.40656 99.16211 98.94174 98.58635 98.12914 97.5674 96.76151 95.91264 94.9894 93.91101 92.65524 91.46317 90.34119 89.50056 89.02415 88.68217 88.4362 88.7919 89.45758 90.13546 90.68013 90.99072 -9999 
-9999 83.51489 83.62981 83.75874 83.96753 84.4735 85.55523 87.00546 88.83305 90.68714 91.97675 93.27429 94.48709 95.56486 96.65116 97.3577 97.97826 98.24467 98.38792 98.35134 98.08585 97.55216 97.00413 96.19915 96.45884 96.94774 97.29247 97.6567 98.09866 98.2471 97.90907 97.47749 96.53991 95.485 93.95979 92.37209 90.96939 89.75751 91.1794 92.30654 93.69339 95.2183 96.29912 97.24096 97.9298 98.44492 98.69972 99.17369 98.37482 98.4632 98.28886 98.05142 97.84872 97.49881 97.10136 96.56887 95.9035 95.08907 94.24782 93.18681 91.96091 90.7728 89.84529 89.20368 88.76813 88.34048 88.15548 88.1634 88.61389 89.12474 89.57279 89.82517 -9999 
-9999 83.2613 83.32867 83.7886 83.8261 84.09615 84.82158 86.28461 88.13993 89.64412 91.13551 92.63024 93.65864 94.74982 95.83186 96.53991 97.1291 97.26168 97.39336 97.36836 97.10898 96.68653 96.15861 95.30579 95.2753 95.841 96.46006 96.89439 97.37415 97.64085 97.38604 97.0087 95.99799 94.79311 93.34531 91.87312 90.56461 89.97818 90.74902 92.1319 93.68974 95.05585 96.15953 96.91391 97.46681 97.98253 97.9609 98.14072 97.28241 97.14951 97.14433 96.89928 96.7231 96.32594 95.82729 95.3262 94.76506 94.01952 93.20144 92.43213 91.2943 90.1132 89.23111 88.5636 88.34689 88.04788 87.64342 87.65347 87.79672 88.1445 88.4679 88.56055 -9999 
-9999 83.15676 83.2543 83.42377 83.61365 83.68954 84.19003 85.59516 87.29472 88.92144 90.4744 92.4434 92.81953 93.86438 94.56085 95.50024 96.01231 96.25158 96.3613 96.51736 96.2028 95.84437 95.3134 94.42552 94.18168 94.85162 95.61668 96.15709 96.81545 97.01997 96.79534 96.36466 95.49414 94.23045 92.68298 91.21841 89.89924 88.91686 90.37869 91.93683 93.32946 94.65046 95.8343 96.40062 96.8947 97.16505 97.32569 97.51039 95.98335 95.80687 95.78706 95.62186 95.39021 94.73093 94.54897 94.09785 93.58945 92.9195 92.21449 91.33546 90.28055 89.32956 88.61542 87.96711 87.78331 87.64402 87.27522 86.78265 86.73572 86.89574 87.20907 87.26576 -9999 
-9999 83.43595 83.12749 83.03057 83.09519 83.15462 83.65511 84.80907 86.15477 87.86165 89.39358 90.74079 91.83015 92.77837 93.57177 94.4627 95.02902 95.20489 95.3262 95.40911 95.27438 94.97203 94.5325 93.94088 93.24715 93.98203 94.91381 95.61393 96.09978 96.28328 96.25462 95.58925 94.65503 93.49557 91.92981 90.78072 89.4335 88.71783 89.92423 91.32296 92.75003 94.17771 95.14668 95.54962 95.83339 95.90472 96.0498 96.16471 94.49776 94.3673 94.3033 94.16613 93.99149 93.68059 93.2112 92.66591 92.21145 91.65031 91.04163 90.16441 89.35365 88.474 87.8644 87.55563 87.58245 87.47577 87.07862 86.75005 86.28278 85.9405 86.38215 86.35563 -9999 
-9999 83.26008 82.50662 82.32861 82.26674 82.78033 83.24484 83.93247 85.49671 86.96645 88.49776 89.68435 90.6844 91.71341 92.54948 93.33159 93.93784 94.16796 94.36272 94.5389 94.41149 94.12316 93.72051 93.21638 92.84299 93.46935 94.48647 95.16709 95.48225 95.65783 95.45573 94.78793 93.81561 92.73479 91.30863 90.03457 88.74008 88.40358 89.48196 90.66824 92.07154 93.33891 94.05549 94.36425 94.52823 94.44868 94.58554 94.63827 92.70522 92.78082 92.80276 92.70004 92.51382 92.26631 91.92342 91.4592 90.91788 90.45275 89.79134 88.95588 88.35574 87.62726 87.28954 87.19018 87.30935 86.98717 87.08502 86.97407 86.31083 85.35619 85.61314 85.81827 -9999 
-9999 83.20065 83.06258 82.96778 82.36855 82.03905 82.45511 83.24941 84.58292 85.96 87.28954 88.52124 89.49934 90.37838 91.31716 92.04929 92.79484 93.20632 93.32824 93.51752 93.39774 93.09079 92.81861 92.36903 91.88989 93.0079 94.00793 94.5956 94.86351 95.06103 94.755 94.14663 93.19291 92.15963 90.83924 88.70838 88.14237 88.24691 88.95863 90.05895 91.36715 92.24894 92.81922 93.00089 93.0338 93.053 93.10117 92.96278 -9999 -9999 -9999 -9999 -9999 -9999 -9999 -9999 -9999 -9999 -9999 -9999 -9999 -9999 -9999 -9999 -9999 -9999 -9999 -9999 -9999 -9999 -9999 -9999 -9999 
-9999 -9999 -9999 -9999 -9999 -9999 -9999 -9999 -9999 -9999 -9999 -9999 -9999 -9999 -9999 -9999 -9999 -9999 -9999 -9999 -9999 -9999 -9999 -9999 -9999 -9999 -9999 -9999 -9999 -9999 -9999 -9999 -9999 -9999 -9999 -9999 -9999 -9999 -9999 -9999 -9999 -9999 -9999 -9999 -9999 -9999 -9999 -9999 -9999 -9999 -9999 -9999 -9999 -9999 -9999 -9999 -9999 -9999 -9999 -9999 -9999 -9999 -9999 -9999 -9999 -9999 -9999 -9999 -9999 -9999 -9999 -9999 -9999 
